# .PCD v0.7 - Point Cloud Data file format
VERSION 0.7
FIELDS x y z rgba
SIZE 4 4 4 4
TYPE F F F U
COUNT 1 1 1 1
WIDTH 1116
HEIGHT 1
VIEWPOINT 0 0 0 1 0 0 0
POINTS 1116
DATA ascii
7.1237884 4.8929653 -1.281161 4278782217
6.9393153 5.0527449 -1.281186 4286941577
6.8464832 5.1247792 -1.2601559 4286676346
7.9087782 5.2086539 -1.2516285 4287598479
6.7302413 5.301693 -1.2877716 4287203979
2.3634915 5.4853015 -1.2885252 4284639599
2.4305038 5.4853725 -1.2789919 4285165938
2.3907168 5.5385995 -1.2637349 4285166194
2.2874086 5.5755286 -1.2778133 4281675573
2.5219877 5.5647631 -1.2977471 4278453252
2.5726063 5.5541873 -1.283307 4278650632
2.2336407 5.6017046 -1.2742063 4294704124
1.4017447 5.7387762 -1.2808836 4288913819
2.5032501 5.7285957 -1.2964947 4278782217
2.6579912 5.7026157 -1.2603703 4278453252
1.2919759 5.7830524 -1.2622218 4288848549
1.1333889 5.8185935 -1.2772501 4288453788
5.9121032 2.463969 -1.2046671 4288388766
7.1544261 4.8775434 -1.2398815 4278651147
7.0274601 4.9918451 -1.2274837 4286939777
6.9671712 5.0361924 -1.2384003 4287006340
6.9068823 5.0805392 -1.2493174 4284900197
7.2344108 5.343667 -1.236127 4287861393
6.9273787 5.3685327 -1.2265229 4287926928
2.5089195 5.4488468 -1.2298182 4294770163
2.4556313 5.4761915 -1.2280324 4285434819
2.4401259 5.527607 -1.2458913 4281872954
2.5661335 5.5834889 -1.2392573 4278782476
2.7611518 5.6852956 -1.2362874 4278453272
1.5512638 5.749855 -1.2015527 4286613918
1.4475486 5.763134 -1.2258204 4289109650
1.4994062 5.7564945 -1.2136866 4282727221
0.67745268 5.8497715 -1.2288576 4290296762
0.83620012 5.8343062 -1.2068393 4291085251
1.1822218 5.8274522 -1.2436513 4288717217
1.2340668 5.820684 -1.2314242 4288783525
0.56882572 5.8918786 -1.200866 4290295734
0.62453693 5.8549261 -1.2361971 4290164920
7.1850643 4.8621211 -1.198602 4278716681
7.1156049 4.9309459 -1.1737813 4286479742
7.055316 4.9752927 -1.1846983 4286612097
6.9949145 5.0195351 -1.1955377 4286940291
6.8971949 5.1700916 -1.1771108 4287137671
7.9430823 5.1677103 -1.1585214 4287532171
7.8899794 5.2175598 -1.1789106 4287664015
6.9621658 5.3380156 -1.1606464 4287861394
7.2554598 5.3233566 -1.1911278 4287795857
2.7028232 5.4002404 -1.1515422 4287007875
2.5477712 5.4670815 -1.1675396 4285428857
2.4806876 5.546742 -1.1849881 4285032025
2.7683406 5.5407228 -1.181191 4278979596
2.6608312 5.5915232 -1.1662508 4278979339
2.6102796 5.6022148 -1.1807674 4278847753
1.7647331 5.6921768 -1.1958556 4291086535
2.8587801 5.6967282 -1.1676838 4286940547
1.6031214 5.7432156 -1.1894189 4290427319
1.6549789 5.7365761 -1.1772852 4290822594
1.7068366 5.7299366 -1.1651514 4291085251
1.7586942 5.7232971 -1.1530175 4291217092
2.8071291 5.7052708 -1.179651 4286940551
1.2066106 5.7982216 -1.1554631 4292335575
0.99494737 5.8188415 -1.184821 4291611853
1.9331468 5.8078365 -1.1658616 4288848289
0.72757035 5.8764138 -1.1788479 4290560191
3.4685309 6.0918064 -1.1701884 4280756009
6.7072577 1.6893423 -1.1179124 4283848278
5.8740644 2.3709905 -1.1374836 4285614112
5.9812975 2.4229987 -1.1059411 4289111205
7.0831718 4.9587402 -1.1419127 4286544251
6.9229503 5.1516724 -1.1337757 4287005320
7.9072533 5.1971922 -1.1324316 4287335309
6.9853573 5.3176708 -1.1167285 4287993236
7.2428813 5.3324919 -1.1171079 4287664529
2.5961759 5.454812 -1.1478934 4283119410
-1.8337473 5.5096021 -1.13481 4292598749
2.5795064 5.5247569 -1.1493008 4281803548
2.6289158 5.5137639 -1.1314572 4279769625
2.8630383 5.5487571 -1.1081846 4278650632
-1.0054928 5.6871142 -1.1123766 4292139482
-0.95261413 5.6912704 -1.1205672 4292730591
-0.89973539 5.6954269 -1.128758 4292730079
2.9618697 5.6792903 -1.1435267 4287072391
3.0134501 5.6706305 -1.1314851 4287072136
3.0650306 5.6619701 -1.1194437 4287269771
-0.79397798 5.7037396 -1.1451392 4292993248
1.8105516 5.7166576 -1.1408837 4291282887
1.8624092 5.7100182 -1.12875 4291414216
1.9142668 5.7033787 -1.1166161 4291611339
2.9046865 5.7165856 -1.1109732 4287072133
1.9833336 5.7978249 -1.1497737 4289045668
2.13379 5.7672944 -1.1011546 4289374890
1.0450679 5.845614 -1.1349033 4291809488
1.0979836 5.8404589 -1.1275638 4292072660
1.1508994 5.8353038 -1.1202244 4292138196
1.2038152 5.8301492 -1.1128849 4292269527
1.8754466 5.8488879 -1.13929 4288716962
1.9757682 5.8286166 -1.1069365 4289111461
0.93923628 5.8559237 -1.1495821 4291743437
0.0044296286 5.940834 -1.1255099 4290559163
0.11130491 5.9333601 -1.1193018 4290624956
0.21819079 5.925755 -1.1130033 4290822081
0.32507655 5.9181499 -1.1067046 4291282886
5.9589319 2.4608648 -1.075841 4288979876
5.7544856 2.7119401 -1.0675906 4288125080
7.1713161 4.897841 -1.0882102 4286545019
7.1249552 4.9339113 -1.0777345 4286545789
7.0063729 5.0858169 -1.0784059 4286940548
6.9487052 5.1332526 -1.0904409 4287006081
7.9773865 5.1267672 -1.0654142 4287466893
7.9242835 5.1766167 -1.0858036 4287400843
7.0636673 5.2472682 -1.0595175 4287927188
7.3186078 5.2624254 -1.0561298 4287599508
2.8386266 5.3941727 -1.0501257 4284306761
2.7416749 5.4184756 -1.0892637 4283714886
2.7901509 5.4063239 -1.0696946 4283454297
2.7277348 5.4917789 -1.0957699 4278387459
-1.9815037 5.5136728 -1.0516464 4281279007
-1.9300611 5.5218558 -1.0645595 4289573821
2.6200681 5.5438914 -1.0883976 4279769369
2.6694775 5.5328989 -1.070554 4279571214
2.7188869 5.5219064 -1.0527103 4278387458
2.9641418 5.5273743 -1.0791514 4278453253
3.0146172 5.5165639 -1.0645596 4278387203
3.0652454 5.505991 -1.0501182 4278519044
2.017982 5.6900997 -1.0923485 4291547085
2.0698395 5.6834602 -1.0802146 4292006095
2.1216972 5.6768208 -1.0680808 4291810000
2.1735547 5.6701813 -1.0559471 4292072917
-1.1069511 5.7095137 -1.0526552 4291414475
-0.94831496 5.7219825 -1.0772272 4292862432
1.9474314 5.7260523 -1.0527108 4293322472
2.2341115 5.7470231 -1.068801 4282727732
2.2842724 5.7368879 -1.0526242 4285168018
1.5213099 5.7992191 -1.0688483 4292861918
1.5742257 5.7940645 -1.0615088 4292993504
1.6271415 5.7889094 -1.0541693 4293058786
2.1839507 5.7571588 -1.0849779 4288517260
2.675077 5.7715645 -1.0832541 4283917933
1.3096467 5.819839 -1.098206 4292664536
1.4154782 5.8095293 -1.0835271 4292664800
2.025929 5.8184814 -1.0907596 4289572269
2.0760615 5.8082175 -1.0744925 4289638577
0.37837625 5.9471316 -1.0615404 4291678160
0.43181905 5.9433289 -1.0583911 4291678671
0.48526213 5.9395266 -1.0552417 4291809488
0.53877658 5.9193316 -1.0730999 4291940817
5.3181486 5.917727 -1.0523236 4281679690
0.16460471 5.9623413 -1.0741376 4290953663
0.21804753 5.958539 -1.0709883 4291019972
0.32493329 5.9509339 -1.0646896 4291480008
3.4905305 6.0809078 -1.0528882 4289769903
3.4691012 6.1051049 -1.0957344 4280756005
5.9365664 2.4987304 -1.045741 4288848547
5.9142008 2.5365968 -1.0156407 4288783010
5.7317238 2.7495141 -1.0374223 4282468422
5.708962 2.7870884 -1.0072539 4281808953
4.9066963 3.5192242 -1.032334 4281674273
4.514122 3.7963798 -1.0044004 4280096276
7.2270274 4.8647361 -1.0026393 4278848009
7.0161715 5.0819058 -1.0194209 4286480254
6.9744601 5.1148334 -1.0471059 4286743940
7.9945383 5.1062956 -1.0188607 4287401357
7.0868587 5.2269235 -1.0155997 4287796115
8.5978527 5.2391629 -1.018098 4286348670
2.771842 5.377727 -1.007309 4293642420
2.9355786 5.3698692 -1.0109876 4278321923
2.8290024 5.4245586 -1.0074161 4285560953
3.115797 5.4952993 -1.0356016 4278453252
3.1663489 5.4846077 -1.021085 4278584838
2.7682962 5.5109138 -1.0348667 4278716938
2.8177776 5.5000362 -1.0170956 4278716680
2.5944545 5.5859451 -1.0017147 4292731359
2.4388816 5.6058636 -1.0381161 4292598233
2.2254124 5.6635418 -1.0438132 4292203987
2.3291571 5.6503849 -1.0196327 4292204248
2.0638006 5.714581 -1.0373765 4292006353
2.384594 5.7166166 -1.0202707 4290821567
2.4347548 5.7064815 -1.004094 4291283658
-0.94401574 5.7526941 -1.0338871 4292927971
1.732973 5.7785997 -1.0394903 4293125609
1.7859083 5.7735686 -1.0322379 4293257191
1.8388046 5.7682896 -1.0248115 4293191656
2.712368 5.7888217 -1.019755 4287532944
1.5185145 5.8311467 -1.02627 4293125090
1.6772618 5.8156815 -1.0042516 4293321955
1.1800197 5.8900933 -1.0143006 4293190628
1.3937913 5.8748837 -1.0017033 4293518819
0.59214783 5.9319215 -1.048943 4292138711
0.64559072 5.9281187 -1.0457938 4292270039
0.69903356 5.9243164 -1.0426445 4292402138
0.75248027 5.9207749 -1.0396736 4292599005
0.8593623 5.9129086 -1.0331964 4292926941
5.1035872 5.9200506 -1.0455121 4283188801
5.1572275 5.9194694 -1.047215 4280294170
5.2125802 5.9497952 -1.0055369 4280097820
5.2662206 5.9492145 -1.0072398 4280887593
5.3735013 5.9480524 -1.0106455 4292009180
5.4808578 5.9470177 -1.0141371 4292664541
5.5344214 5.9463096 -1.0157542 4292269525
5.5880623 5.9457288 -1.0174571 4291019198
6.0171847 5.9410815 -1.0310801 4289966769
6.0708251 5.9405003 -1.032783 4289768879
6.1245522 5.9400463 -1.034572 4289704367
6.1781058 5.9393387 -1.0361887 4289703855
0.37823716 5.979784 -1.0194366 4291678159
0.48512128 5.9721789 -1.0131381 4291809234
0.59200531 5.9645739 -1.0068395 4292072404
0.64544743 5.9609027 -1.0037789 4292401370
0.69888937 5.9569693 -1.0005411 4292467162
6.5758533 1.8710145 -0.96157336 4283848278
5.8918352 2.5744627 -0.98554057 4288848803
5.8694696 2.6123285 -0.95544064 4288848803
5.7100787 2.6602399 -0.95994973 4284177243
5.2869182 3.0023439 -0.99405116 4284769124
4.875802 3.5737171 -0.98267323 4279505170
7.2711 4.8342867 -0.97578812 4278781960
7.0259709 5.0779943 -0.96043599 4286874755
8.0116901 5.0858235 -0.97230715 4287532172
7.9584608 5.1355667 -0.99262172 4287532685
8.6942616 5.1326718 -0.97073263 4286479740
8.6461248 5.1859717 -0.99445248 4286480255
8.6092587 5.2164283 -0.97093153 4286348157
2.8661175 5.3510408 -0.96346712 4284045402
2.8774784 5.4124074 -0.98784709 4280884248
2.9259543 5.4002557 -0.96827811 4278387459
2.8088579 5.5300484 -0.97396344 4278650887
2.8582673 5.5190558 -0.95611984 4278716424
3.2104948 5.5033336 -0.96259522 4278519060
2.4328427 5.6369839 -0.99527794 4292598234
2.2712309 5.6880231 -0.98884124 4292204503
2.4849155 5.6963458 -0.98791724 4291480266
2.585237 5.676075 -0.95556366 4291612367
-1.3670455 5.7194438 -0.96836179 4292335060
-1.3141668 5.7235999 -0.97655249 4292335575
-1.261288 5.7277565 -0.98474312 4292138192
-1.2084094 5.7319126 -0.99293381 4288585891
2.4272153 5.7373972 -0.96134555 4291414217
2.3268938 5.757668 -0.99369907 4290954180
2.8558755 5.7505937 -0.95755386 4284040254
3.0853083 5.7645483 -0.9803893 4286391424
3.1315653 5.7500606 -0.95734817 4287007112
1.6744665 5.847609 -0.96167344 4293256163
2.7496593 5.8060789 -0.95625585 4288190615
0.80577612 5.9494953 -0.99433094 4292533725
0.85921901 5.9456925 -0.99118161 4292730846
1.1264335 5.9266801 -0.97543502 4293059297
1.2333194 5.919075 -0.96913642 4293256676
1.3402052 5.9114699 -0.96283776 4293454055
3.5317166 5.9851837 -0.95607698 4290295993
5.6970549 5.9754739 -0.9774819 4290032050
5.7506952 5.9748926 -0.97918481 4290098613
5.8043356 5.9743118 -0.98088765 4290164150
5.857976 5.973731 -0.98259056 4290032564
6.0188966 5.9719882 -0.98769915 4289835956
6.1261773 5.9708261 -0.99110496 4289703854
4.8447895 3.6281216 -0.93294048 4279045389
7.3429098 4.7871833 -0.90607905 4278650889
7.2827387 4.8316312 -0.91706836 4278848524
7.3151722 4.8038368 -0.94893706 4278782218
7.0836382 5.0305586 -0.94840097 4282993224
7.1093936 5.0121393 -0.90506589 4283191378
7.0517259 5.0595751 -0.91710114 4286414206
8.6573944 5.1631293 -0.94721121 4286413951
7.0781236 5.2362919 -0.9410578 4287664274
3.0187857 5.2808924 -0.94021595 4284111449
7.3194761 5.2867169 -0.91037047 4286414726
2.9132552 5.337698 -0.94154614 4284440415
2.960315 5.3242393 -0.91955155 4284374622
2.9648061 5.4184904 -0.90599954 4278716424
3.0648286 5.4450722 -0.927876 4279110924
2.9570861 5.4970708 -0.92043257 4278979339
3.0153434 5.4559507 -0.94564849 4278979852
3.2546411 5.5220594 -0.90410537 4286808706
2.7357194 5.645668 -0.90703338 4292072146
2.477376 5.7272615 -0.94516879 4291611851
2.5275371 5.7171264 -0.92899203 4291677646
2.5776978 5.7069907 -0.91281527 4291743181
2.9037111 5.7378507 -0.93682021 4281808686
2.9515469 5.7251081 -0.91608655 4282204483
3.1778224 5.7355723 -0.93430698 4287664784
2.7974951 5.7933359 -0.93552214 4287335049
3.073112 5.7937741 -0.93752712 4286588031
3.1193213 5.7791595 -0.91439956 4287138443
1.2866189 5.9480567 -0.92397225 4293388263
3.5493484 5.9561176 -0.91053092 4290493371
5.9741578 2.4783306 -0.89575571 4282797904
5.433888 3.2600949 -0.85859871 4278979855
-7.0768466 3.3648827 -0.85983288 4282400831
7.4172449 4.7346611 -0.87384194 4278782217
7.3104773 4.8149772 -0.87421095 4278782473
7.1351485 4.9937201 -0.86173099 4284572004
8.0992231 4.995132 -0.85888052 4287335309
8.0459948 5.0448804 -0.87919986 4287401358
3.0075305 5.3110123 -0.8977043 4284374879
3.0617578 5.3941875 -0.86686152 4278781959
3.0132821 5.4063392 -0.8864305 4278650375
3.0559049 5.4750853 -0.88474536 4278979082
3.1053145 5.4640927 -0.86690164 4278913546
2.9482384 5.5271978 -0.87737298 4278782474
3.3052716 5.5114832 -0.88965887 4286874754
3.3557444 5.5006766 -0.87507224 4287072391
2.7858803 5.6355329 -0.89085662 4292203989
2.8862019 5.6152616 -0.8585031 4292269275
2.6278584 5.6968551 -0.89663851 4291809231
2.6780193 5.6867199 -0.88046175 4292072146
2.7281799 5.6765842 -0.86428499 4292072658
3.0471725 5.6994967 -0.874533 4288454046
3.0950539 5.6868796 -0.85388547 4288914596
3.3165939 5.6921082 -0.86518347 4279309339
2.9941101 5.727365 -0.87397015 4285693831
3.5203805 5.7029104 -0.85381937 4286589328
3.165626 5.7647982 -0.89144486 4287861907
-0.63592643 5.9822106 -0.86330384 4291940047
-0.52864581 5.9810491 -0.86670959 4291940818
-0.42136508 5.979887 -0.87011534 4292139224
-0.36772487 5.9793062 -0.87181824 4292270039
0.3849515 6.0020795 -0.85227764 4293388520
0.4922289 6.0010457 -0.85576665 4293454311
5.6659679 2.8439832 -0.80921859 4288829528
5.5058203 3.110208 -0.80984098 4278848268
4.5680103 3.7800202 -0.80234259 4279572247
7.4590282 4.7098327 -0.80966377 4279045388
7.1928167 4.9462838 -0.84969628 4286283384
7.2185717 4.9278646 -0.80636138 4286347896
7.1609039 4.9753003 -0.81839615 4285427052
7.3902259 5.1903195 -0.80211258 4287664273
7.4238539 5.1608734 -0.83113301 4287664271
7.3691764 5.2106299 -0.84711188 4287729808
3.090627 5.3145576 -0.81142259 4284374628
3.110234 5.3820357 -0.84729248 4278650889
3.6085033 5.4472189 -0.80248928 4287664271
3.4568479 5.4792933 -0.846039 4287203464
3.5073998 5.4686017 -0.83152241 4287138443
3.5579515 5.4579105 -0.81700587 4287598221
2.8786623 5.6461778 -0.81575471 4292466905
2.9364038 5.605247 -0.84241033 4292532698
2.8285017 5.6563129 -0.83193147 4292204246
3.1428897 5.6741371 -0.83315176 4289505964
3.1907256 5.6613941 -0.8124181 4289901235
3.5650151 5.687067 -0.82857567 4287663757
3.6096499 5.6712236 -0.80333191 4287982163
3.2581403 5.7358222 -0.84536254 4281151021
3.3043976 5.721334 -0.82232136 4280295721
-0.47329366 6.011375 -0.82503152 4292072403
-0.31237265 6.0096321 -0.83014017 4292467420
-0.25873235 6.0090508 -0.83184308 4292730332
-0.20509204 6.0084701 -0.83354592 4292665055
-0.097811393 6.007308 -0.83695173 4292927969
0.0094692642 6.0061464 -0.84035748 4293387234
0.17038187 6.0045314 -0.84554923 4293388262
0.22403052 6.0038223 -0.84716898 4293322470
0.27767086 6.0032415 -0.84887189 4293454313
0.38666341 6.0329866 -0.80889672 4293454056
5.6702976 2.9383032 -0.75867826 4279704863
5.3865762 3.3329582 -0.79685128 4279176203
5.3629203 3.36939 -0.7659775 4278978824
4.5989652 3.75739 -0.76478958 4279440401
7.547173 4.6489329 -0.75596166 4279045389
7.4867635 4.6931806 -0.76680803 4278914060
7.5193172 4.6654854 -0.79874706 4278979853
7.2762394 4.8804283 -0.79432613 4285888118
7.3019943 4.862009 -0.75099128 4285953650
7.2443271 4.9094448 -0.7630263 4286282875
7.1865439 4.9567771 -0.77499062 4285492846
-3.964936 5.0454779 -0.78997159 4289111462
8.7393379 5.0413017 -0.78176689 4286546048
8.7024708 5.0717592 -0.75824547 4286677376
7.2260079 5.1048551 -0.75209361 4287466892
7.4112749 5.1700091 -0.7571131 4287663760
3.1849022 5.2878718 -0.76758069 4278584070
3.3041377 5.3334298 -0.76901656 4278848009
3.1976402 5.3882322 -0.76551372 4278913804
3.1490855 5.4002709 -0.78501397 4278847496
5.7762523 5.5302925 -0.78547418 4283124549
2.9288232 5.6360421 -0.79957795 4292467162
2.9789841 5.6259065 -0.78340119 4292665053
3.2386086 5.6487722 -0.79176664 4290164406
3.286397 5.6359086 -0.77095073 4290230456
3.3342817 5.6232867 -0.75029862 4290296506
3.6989193 5.6395364 -0.75284445 4287862682
3.3969116 5.692358 -0.77623904 4287270031
3.4431689 5.6778698 -0.75319785 4288124830
3.6542845 5.6553798 -0.77808821 4286810768
3.3506546 5.7068458 -0.79928017 4281742130
3.5962279 5.7007666 -0.76105773 4288189324
3.2921507 5.7504334 -0.77937496 4280952614
0.064821474 6.0364723 -0.79867941 4293059555
5.6242485 2.9189749 -0.74600196 4288501848
5.6479321 2.9761693 -0.72857815 4279440919
5.4602966 3.1853566 -0.74950415 4279045390
5.4374056 3.2228503 -0.71926969 4278913804
5.3274364 3.4240375 -0.71966684 4286216564
4.9746189 3.5144405 -0.72747785 4283243032
4.6299195 3.73476 -0.72723675 4279373839
7.270082 4.8910255 -0.7196914 4285294433
-4.2457542 4.9332905 -0.72614878 4290034109
8.1506796 4.9337158 -0.71921748 4287598222
8.0974512 4.9834652 -0.73953891 4287598480
-4.0487905 5.013124 -0.73126632 4288453788
8.7506075 5.0184593 -0.73452556 4286479997
7.2490835 5.084404 -0.70810616 4287138701
7.2811265 5.0547967 -0.73880005 4287597962
3.3339686 5.1340904 -0.70896423 4284572258
7.4323244 5.1496987 -0.71211386 4287598222
3.2888114 5.1500425 -0.73319006 4284374880
7.8119283 5.1617479 -0.73194361 4287072390
3.2791777 5.2611861 -0.72373885 4278650888
3.220861 5.3047605 -0.70321983 4278584839
3.3526945 5.3213906 -0.74951607 4278782217
3.2460375 5.3759675 -0.74587601 4278913803
3.1879373 5.4185057 -0.7227354 4278848267
3.2364132 5.406354 -0.70316643 4278848011
3.3929229 5.4282646 -0.71678025 4278519304
3.395349 5.4829907 -0.73948389 4293322470
3.587014 5.4940839 -0.70752794 4287664015
3.3376489 5.5240421 -0.71291226 4293388519
5.9898806 5.5478663 -0.73086202 4281150250
6.0433235 5.5440636 -0.72771275 4287152096
6.1502094 5.5364585 -0.72141409 4293716970
6.2036524 5.5326562 -0.71826476 4290756801
6.2570953 5.5288534 -0.71511543 4291019972
6.3105383 5.5250511 -0.7119661 4291216834
3.1295106 5.5956211 -0.73495317 4292993506
3.4299042 5.5976806 -0.70874965 4290558907
4.0253596 5.5732017 -0.71376663 4287401355
5.8295522 5.5592737 -0.74030995 4282792501
5.8829947 5.5554714 -0.73716068 4280624680
5.9364381 5.5516686 -0.73401129 4280427815
3.0717661 5.6365514 -0.70829922 4292796896
3.3820684 5.6104231 -0.72948331 4290558908
3.5356832 5.6488934 -0.70711547 4289112489
3.5941365 5.6051798 -0.72693646 4289374892
3.7435541 5.623693 -0.72760069 4288716960
3.7881889 5.6078496 -0.70235693 4288979874
3.4894259 5.6633816 -0.73015672 4288783265
3.6854973 5.6690798 -0.71057022 4279964688
3.4309196 5.7069702 -0.71025258 4288256925
5.6255665 3.0140352 -0.69847804 4279110928
5.0005612 3.4916866 -0.68637103 4279242768
5.2919526 3.4786851 -0.67335612 4286282619
4.9539027 3.5506821 -0.69430256 4283046683
7.6028843 4.615828 -0.67039061 4279242514
7.3854175 4.7961535 -0.69562125 4281807922
7.3535047 4.82517 -0.6643213 4281874230
-4.384716 4.8537321 -0.6702475 4289111718
-4.3252339 4.8997626 -0.66226637 4289045927
8.1677055 4.9131446 -0.67259598 4287598479
8.8098717 4.942214 -0.66349477 4286479741
7.3159142 5.0242796 -0.67292351 4287071878
7.4870014 5.0999427 -0.69613504 4287598221
7.5080509 5.0796323 -0.65113556 4287467151
3.3791256 5.1181388 -0.68473846 4284637794
7.822928 5.1359701 -0.68627256 4287071879
3.2767751 5.1801739 -0.69091374 4284440672
3.3218479 5.1641083 -0.66661835 4284769122
7.3955169 5.1568146 -0.68830115 4287664273
3.2679987 5.2914176 -0.68129891 4278716167
3.3151364 5.2780747 -0.65937799 4278782216
3.4981248 5.2849355 -0.69080812 4278847752
3.3914654 5.3395133 -0.68716902 4278782217
3.4399412 5.3273616 -0.66760004 4278914060
3.4423325 5.4172721 -0.69893664 4278650887
6.4707236 5.5464277 -0.66050333 4290690749
6.5241666 5.542625 -0.657354 4290559423
6.5776806 5.5224304 -0.67521214 4290428093
3.3301096 5.5549579 -0.67016387 4293322214
3.4777911 5.5850577 -0.68809652 4290887872
3.6866508 5.5762033 -0.6808542 4290032819
3.732908 5.5617156 -0.65781301 4290164406
3.8328235 5.5920062 -0.67711323 4289111718
3.8775172 5.576282 -0.65194863 4289243046
6.2035089 5.5654402 -0.67624992 4292003259
6.3103952 5.5578351 -0.66995126 4291019458
6.3638377 5.5540323 -0.66680193 4291019973
6.4172802 5.55023 -0.66365266 4291085251
3.2222486 5.6061449 -0.65976894 4293191397
3.6281974 5.6199174 -0.66103315 4289835441
4.0105386 5.6035633 -0.67253941 4287400073
3.7301319 5.6532364 -0.68532646 4287273885
5.2682962 3.5151169 -0.64248234 4286414721
7.5704508 4.6436229 -0.63852173 4279177487
7.4369278 4.7593145 -0.60895145 4280953643
7.3792601 4.8067508 -0.6209864 4281348142
8.1848574 4.892673 -0.62604243 4287467149
8.8212814 4.9194746 -0.6163224 4286348928
7.5290999 5.0593219 -0.60613626 4287138442
3.4122467 5.1323185 -0.61823636 4285558897
7.4105849 5.1307058 -0.64380258 4287861136
7.1153293 5.2193489 -0.61621618 4288256407
3.3622742 5.2647319 -0.63745701 4278716682
3.4094117 5.2513885 -0.61553615 4278913547
3.3039577 5.3083062 -0.61693805 4278585095
3.4884171 5.3152099 -0.64803106 4278979596
3.5369771 5.3031707 -0.62852865 4279045132
3.5817127 5.4144216 -0.60234612 4286874498
4.5711994 5.4101367 -0.6037491 4285887860
3.6213007 5.5468287 -0.62589449 4291217094
3.779165 5.5472274 -0.63477188 4290230457
6.6844954 5.5312176 -0.64790601 4290098101
6.7379379 5.5274148 -0.64475673 4290033078
6.8448238 5.5198097 -0.63845807 4289769135
6.8982668 5.5160074 -0.63530874 4289638062
3.2724094 5.5960097 -0.64359218 4293191399
3.5628669 5.5894518 -0.60378313 4290954695
3.4671953 5.6149373 -0.6452505 4290822336
3.8194015 5.6215491 -0.634839 4288914084
3.8640361 5.6057057 -0.60959524 4289111719
5.4775343 3.1680715 -0.59913921 4280097822
5.4566751 3.2055666 -0.56753147 4279243027
7.7188845 4.5383763 -0.57390267 4279440919
7.5983067 4.6270704 -0.59573621 4279045647
7.4626832 4.7408953 -0.56561643 4280944134
-4.520246 4.8492742 -0.55815661 4287397986
-4.4821563 4.866785 -0.59166896 4279177750
8.2020102 4.872201 -0.57948869 4287466892
-4.3005934 4.916388 -0.55537969 4291282631
7.5502663 5.0391135 -0.56120205 4287400587
3.4574039 5.1163664 -0.59401053 4287467666
3.5025609 5.1004143 -0.56978476 4288848029
7.1772799 5.1334753 -0.56009173 4288058775
7.4257693 5.1047039 -0.59937465 4287795858
3.4453707 5.2682772 -0.55117524 4278913803
3.5272689 5.3334451 -0.58575249 4279703318
3.5757449 5.3212934 -0.56618345 4279045388
3.6804433 5.3923197 -0.56659144 4287071878
4.6106377 5.3925376 -0.57188332 4285803650
3.6311221 5.403429 -0.58450252 4286940292
3.8716793 5.5182514 -0.58868951 4290493371
4.0113626 5.5286322 -0.57613826 4289637547
4.0559974 5.5127888 -0.5508945 4289769907
7.0050097 5.5411863 -0.58699524 4289046182
3.6107025 5.5767093 -0.58304948 4291348167
3.6584826 5.5638433 -0.5622347 4291480009
3.7669687 5.5764532 -0.59190971 4290230713
3.9086709 5.5898623 -0.58435154 4289244334
3.9533057 5.574019 -0.55910772 4289572525
6.7912378 5.5563965 -0.59959251 4289901235
3.5523224 5.619452 -0.56101769 4291217606
4.0810246 5.6001139 -0.57568127 4287532685
6.1621614 2.562732 -0.54675806 4283716692
5.4360747 3.243221 -0.53604335 4279176974
5.44876 3.3021441 -0.53181577 4278979340
6.4730144 3.3506436 -0.51399332 4281808444
4.7846923 3.6216099 -0.53947216 4287142810
7.8070292 4.4774771 -0.52020031 4279638295
7.6863275 4.5660739 -0.54196733 4279637783
7.488555 4.7225728 -0.52234584 4278650374
-4.5437655 4.7867808 -0.54255444 4278783262
3.83757 4.7907295 -0.54899526 4291604335
3.8253338 4.8204985 -0.50652003 4283123512
7.4522028 4.9030147 -0.50591809 4282270022
7.5710773 5.0185966 -0.51607114 4287137928
7.8663096 5.0323286 -0.50323778 4287203718
8.0749855 5.0292044 -0.50841397 4286940546
3.5478036 5.0845714 -0.54562449 4287790401
3.5928752 5.0685105 -0.5213331 4278716424
7.8554335 5.0582123 -0.54897887 4287006342
3.535682 5.114594 -0.50328267 4289178027
7.1949511 5.1076245 -0.5165025 4288320370
7.4139194 5.1137085 -0.5252189 4287993237
3.6726966 5.2969904 -0.52704549 4279704867
3.7211726 5.2848387 -0.50747651 4281282865
3.7299411 5.381444 -0.54881519 4287072136
3.7793505 5.3704515 -0.53097153 4287466379
4.6697946 5.3661394 -0.52408469 4279833613
4.5927343 5.4236875 -0.53252262 4285737350
4.6320982 5.4059691 -0.50057936 4284898344
4.1229491 5.4890237 -0.51302892 4290032564
3.8020456 5.5257382 -0.50011468 4291743696
3.859483 5.5474772 -0.54582739 4290559421
3.90574 5.532989 -0.5227862 4290756543
4.2237134 5.5188522 -0.53333622 4288257182
4.2664013 5.5020027 -0.50555539 4288584603
3.7063739 5.5512238 -0.54158205 4291480010
-7.1654062 3.2423682 -0.47330663 4294704123
-7.1398001 3.285732 -0.45587453 4294704123
5.4023352 3.3714385 -0.46377122 4284967265
6.3628268 3.5217147 -0.47468591 4284441446
7.9554629 4.3722305 -0.45558131 4282541933
7.8951735 4.4165778 -0.46649778 4279966491
7.5718613 4.6566205 -0.46691167 4278519560
-4.6231546 4.7531486 -0.47860014 4288253570
-4.5636725 4.7991791 -0.47061896 4291280561
7.4564061 4.7513919 -0.49091572 4278650632
8.2363138 4.8312578 -0.48638165 4287270541
8.3930788 4.8071537 -0.47503209 4286414206
3.8130975 4.8502674 -0.46404484 4284374621
7.4753942 4.8826699 -0.46200043 4283981665
7.6469245 4.9486346 -0.45515919 4287006855
3.6831896 5.0366068 -0.47288153 4278913802
7.8771858 5.0064445 -0.45749673 4287138184
8.0840654 5.0030136 -0.46245629 4286874757
3.6380324 5.0525589 -0.49710736 4278848010
7.4291043 5.0877066 -0.48079094 4287927443
7.8383908 5.068645 -0.47594896 4287203721
6.9031782 5.1444039 -0.48540401 4281085230
6.8768907 5.1779108 -0.45336857 4281348402
3.4813294 5.2851663 -0.48681438 4278979854
3.5284672 5.2718229 -0.46489343 4279440662
3.7697363 5.2727985 -0.48797178 4281085200
3.8198214 5.3894691 -0.4700025 4287400842
4.1102104 5.3893991 -0.46132043 4292335577
4.0623131 5.4020247 -0.48197716 4292335318
4.1899014 5.4652581 -0.47516334 4290230201
3.8498812 5.5129957 -0.47938102 4291875023
3.897717 5.5002527 -0.45864734 4292137938
3.9751258 5.5112567 -0.48822445 4290888388
-7.1637225 3.2215068 -0.42388567 4294769917
5.1356187 3.3914921 -0.40662235 4283060576
6.453927 3.3656518 -0.44236234 4283849051
5.1096764 3.4142458 -0.4477292 4279374097
5.3816633 3.4157419 -0.44151545 4285756018
6.4298706 3.4062705 -0.41763458 4283914078
6.3024383 3.6210065 -0.40950236 4294901502
7.9834433 4.3557692 -0.41285825 4287532430
7.5399485 4.685637 -0.4356117 4278716424
8.4011784 4.7808542 -0.42905304 4286545792
3.8777413 4.821764 -0.42544556 4284045920
8.2534666 4.8107858 -0.43982792 4287269514
8.3645849 4.8439183 -0.44902292 4286480256
-4.6668506 4.8666887 -0.42015609 4279768856
7.4985857 4.8623252 -0.41808259 4283847500
7.888062 4.9805608 -0.41175565 4287203208
3.6711533 5.0667386 -0.43060529 4278650889
3.7163105 5.0507865 -0.40637949 4278782475
7.4171338 5.096602 -0.40656689 4288058515
7.1861272 5.1160526 -0.44192812 4279702795
6.8969932 5.1526537 -0.41040894 4282006073
3.963552 5.224081 -0.40963161 4287071878
3.5700154 5.2735958 -0.4217526 4279571217
3.8569763 5.2787704 -0.40605995 4286743940
6.3394413 5.2981915 -0.44353604 4279836706
3.5172884 5.3020549 -0.42245355 4280296481
6.2308145 5.3404288 -0.41563675 4279900705
6.28373 5.3352737 -0.4082973 4280228888
6.3366461 5.3301191 -0.40095785 4280226320
4.7110491 5.3708906 -0.43692535 4280229655
4.0996046 5.419282 -0.41847801 4292466904
4.2345362 5.4494147 -0.44991952 4290427579
4.279171 5.4335713 -0.42467582 4290624956
4.451581 5.4035339 -0.43519795 4288717730
3.9455526 5.4875102 -0.43791363 4292138710
3.9933884 5.4747672 -0.41717994 4292269268
4.0907683 5.4750366 -0.43062156 4291480519
4.1370258 5.4605484 -0.40758041 4291612365
4.2211142 5.4789581 -0.40764531 4290296764
4.3515797 5.4679518 -0.44976565 4288651167
3.986058 5.5332384 -0.43384171 4290954439
4.0323153 5.5187507 -0.41080052 4291217352
-7.1364326 3.2440095 -0.35703307 4287995292
5.4441175 3.3195271 -0.36895511 4284769380
5.161561 3.3687382 -0.36551538 4285689968
5.3851457 3.3582745 -0.36258906 4285031012
4.8597507 3.5888851 -0.39094603 4291871927
8.0713329 4.2946863 -0.35902974 4283585106
7.9508848 4.3834729 -0.38092685 4287532942
7.6810393 4.5723457 -0.36820674 4278782218
-4.7698278 4.7149115 -0.3963103 4282061075
-4.7486858 4.7441034 -0.35701233 4282732388
8.3237209 4.7404652 -0.37288511 4282530876
-4.7970324 4.7795639 -0.3551425 4278518276
3.9423854 4.7932606 -0.38684633 4282780933
3.985575 4.7743626 -0.36117604 4278848783
7.5768957 4.7919226 -0.36087158 4281874486
7.5217772 4.8419805 -0.37416494 4281479990
7.7227707 4.8786674 -0.39424324 4286480254
8.1300688 4.9137373 -0.39706764 4286875013
3.7614675 5.0348344 -0.38215369 4278914318
3.8066247 5.0188828 -0.35792789 4279111182
6.9436083 5.094111 -0.39962435 4281808692
3.7170179 5.218451 -0.37720969 4281611316
4.0121198 5.2120399 -0.3901253 4287072391
3.905452 5.2666192 -0.38649097 4286940806
5.1268539 5.2713757 -0.38066643 4286151031
6.6541405 5.2991891 -0.35692114 4294046450
6.3895617 5.324964 -0.3936184 4281346856
6.4424777 5.319809 -0.3862789 4280954155
6.4953928 5.3146539 -0.37893951 4280834457
6.6012249 5.3043442 -0.36426055 4294046192
4.2879934 5.3878584 -0.38131902 4291875023
4.3343163 5.373487 -0.35835284 4291940819
4.5794473 5.3526335 -0.35162735 4289374891
4.0890598 5.4492817 -0.37571257 4292665050
4.14744 5.406539 -0.39774433 4292862174
4.2295399 5.4315724 -0.36149806 4291809231
4.3170948 5.4324994 -0.378295 4290822335
4.3684402 5.4018846 -0.37418836 4290822595
4.4794459 5.4170518 -0.36619499 4288980390
4.2657485 5.4631143 -0.38240162 4290625214
3.9827828 5.5046449 -0.37433651 4292335573
5.4289536 3.2981746 -0.34882349 4284769123
5.1876235 3.3460653 -0.32446867 4285690482
5.4242988 3.3411746 -0.31402773 4283322192
5.463006 3.3076248 -0.33870816 4282334780
7.9787407 4.3669205 -0.33814129 4285031265
7.7067943 4.5539265 -0.32487184 4278979595
-4.8461037 4.6799922 -0.32935369 4282163124
-4.9604421 4.7212524 -0.30645949 4279440148
8.3228321 4.7346325 -0.31321785 4283717206
-4.8688335 4.7898245 -0.34206805 4279571475
7.6000872 4.7715778 -0.31695393 4280953645
-4.8456554 4.8197556 -0.30455855 4279571218
-4.7753639 4.8088236 -0.31622708 4290625207
7.710072 4.8877034 -0.32016116 4287994266
8.1482306 4.8613563 -0.3051523 4287137414
3.8517818 5.0029306 -0.33370209 4279110925
7.239027 5.038394 -0.31109372 4291414732
3.8112931 5.1917653 -0.33336785 4284639081
4.8867049 5.2693458 -0.34882286 4279045390
4.9262204 5.2518601 -0.31702942 4279176977
5.1531558 5.2676835 -0.32693261 4286150777
6.7070565 5.2940345 -0.34958169 4291414731
6.7599726 5.2888794 -0.34224218 4291480267
6.8128881 5.2837243 -0.33490273 4291413959
6.8658037 5.2785692 -0.32756329 4290953923
4.6220694 5.3356671 -0.32377052 4289440427
4.8292856 5.3179765 -0.34125307 4279176975
4.3805075 5.3588824 -0.3352367 4291941075
4.4131427 5.386157 -0.3490189 4291019715
4.5646901 5.3831182 -0.31048128 4289309355
4.3220544 5.4025965 -0.31541571 4292007125
5.7922664 5.4678507 -0.32144868 4281479729
5.3529353 3.1459024 -0.25924128 4286540886
5.5331135 3.2149632 -0.2694295 4279177226
5.2134457 3.3232303 -0.2833015 4286019447
8.1271744 4.2616739 -0.2735225 4283716693
7.9712877 4.429811 -0.26876268 4287728003
7.7902174 4.488071 -0.26950195 4279176973
7.7325497 4.5355067 -0.28153688 4278848268
-5.2944384 4.5873837 -0.27184635 4279637269
-5.2370195 4.636456 -0.27579439 4279440403
8.411128 4.6496725 -0.25938812 4286875012
8.3580256 4.6995215 -0.27977785 4280821800
4.114769 4.7172518 -0.28391498 4279374612
4.0163412 4.7850256 -0.29290536 4278979597
4.0594368 4.7660232 -0.26717252 4279111182
7.6232791 4.7512326 -0.27303609 4280953128
8.120389 4.8982515 -0.27862522 4287072135
7.8820233 4.9652181 -0.29305333 4287400588
3.884903 5.0171103 -0.26720002 4279176463
7.2566981 5.0125437 -0.26750484 4290822341
7.4628091 5.0187054 -0.2733511 4287861650
5.0623608 5.1678009 -0.26072031 4281347869
3.8472519 5.2086539 -0.26900706 4286150253
4.9655814 5.234148 -0.28509134 4279046418
5.1894403 5.2484226 -0.29239279 4286084983
7.1832986 5.2476397 -0.28352657 4289638065
7.2362142 5.2424846 -0.27618712 4289638577
7.3949614 5.2270198 -0.25416878 4288783269
5.1695566 5.2796745 -0.2540777 4286151033
7.0774665 5.2579498 -0.29820549 4290427835
7.130383 5.2527947 -0.29086599 4290229682
4.6499343 5.3491845 -0.25476751 4289572528
6.9688401 5.3001866 -0.2703062 4290756542
4.3682432 5.3879881 -0.29229832 4292072661
4.4294281 5.3866806 -0.27538002 4291743695
4.4889221 5.3838973 -0.25618291 4291546060
4.5023446 5.3543539 -0.29845715 4291414216
4.6073122 5.3661513 -0.28262445 4289506476
5.2653303 3.2777226 -0.2010877 4286348412
5.5093312 3.2513165 -0.2384975 4278848266
5.239388 3.3004766 -0.24219464 4286151033
8.1550303 4.2451215 -0.23073702 4283781969
7.8159723 4.4696512 -0.22616689 4279307790
7.7583046 4.5170875 -0.23820199 4278979595
4.1313081 4.6585364 -0.2045376 4284901738
7.7014656 4.6807308 -0.21576332 4280953648
8.3751774 4.67905 -0.23322411 4281677114
4.0345044 4.7275872 -0.21947703 4285230962
4.1025329 4.7470212 -0.2414397 4279374611
7.6464705 4.7308884 -0.22911845 4280755749
8.3392267 4.7084274 -0.20705988 4286676863
8.5897141 4.7419877 -0.23612058 4286546046
4.0472007 4.7957921 -0.22469732 4279110924
7.7521706 4.8470831 -0.23016243 4287136899
7.8928995 4.9393339 -0.24731185 4287466637
7.9037757 4.9134502 -0.20157076 4287467150
7.477994 4.9927034 -0.2289228 4287730065
3.8728666 5.0472417 -0.22492371 4280427811
3.9180238 5.0312901 -0.20069794 4279571734
3.8943896 5.1953111 -0.24708611 4281544493
3.9415271 5.1819682 -0.2251652 4280821540
3.9886649 5.1686254 -0.20324425 4280558886
4.9870362 5.247582 -0.21379204 4279110666
5.2620082 5.2099004 -0.22331327 4279966230
7.5007935 5.2167101 -0.23948982 4288519578
7.553709 5.211555 -0.23215039 4288715672
5.2058411 5.2604132 -0.21953791 4286122776
7.1805034 5.2795668 -0.24094835 4290098609
7.2334189 5.2744122 -0.2336089 4289901490
7.2863345 5.2692571 -0.22626947 4289638061
7.3392506 5.264102 -0.21893002 4289440167
4.55334 5.3301558 -0.2002099 4293519851
4.6925564 5.3322177 -0.22691067 4289835440
4.5335569 5.3680539 -0.23093919 4291809229
4.5782619 5.3523259 -0.20576744 4291940302
4.6351032 5.3795495 -0.21354786 4289769648
5.5528069 3.205843 -0.1515258 4280555788
-5.6124115 4.371923 -0.18801953 4279637526
-5.5856056 4.4031796 -0.15418851 4279571991
7.8417277 4.451232 -0.18283202 4279111440
-5.0719995 4.6153874 -0.15162161 4283645215
4.1170659 4.688693 -0.16297078 4284702563
7.7247806 4.6604853 -0.1719071 4280690212
8.4123859 4.6855206 -0.17275497 4286808964
4.0757852 4.7081399 -0.1912239 4285953910
4.1887245 4.7090168 -0.18997405 4279242769
8.3759251 4.7486854 -0.19279017 4286809477
8.5961666 4.7160335 -0.18958811 4286479997
4.1333923 4.7577877 -0.17323171 4279243025
8.5663023 4.7526903 -0.16500136 4286480514
7.7732201 4.8267727 -0.18516316 4285821037
7.9146519 4.8875661 -0.15582968 4287400843
7.4932971 4.9668055 -0.18455793 4279047192
3.963181 5.0153379 -0.17647208 4280758072
7.4661441 5.0017085 -0.15476742 4279637784
4.0829401 5.1419392 -0.15940242 4282072852
5.1412373 5.1326032 -0.19698878 4279242766
5.1806755 5.1150041 -0.16512297 4281548874
7.4979978 5.2486372 -0.19691162 4288585119
4.6808834 5.2909803 -0.19748217 4291941331
4.7778006 5.2982841 -0.17119695 4290164663
7.3363438 5.2959094 -0.17627616 4289309096
4.599597 5.3156676 -0.17716873 4294308850
4.6228266 5.3363667 -0.18045171 4291941073
5.5745449 3.1831059 -0.10803989 4278717197
5.5233965 3.254411 -0.13324709 4282198812
8.1781769 4.2397189 -0.11323792 4286679437
8.2106085 4.2119255 -0.14510576 4284902517
7.8674827 4.4328127 -0.13949703 4279111695
-5.2461972 4.5260477 -0.12549871 4287864480
8.4625845 4.5882578 -0.11972754 4282662201
4.1996274 4.6497989 -0.10646453 4286942868
7.747972 4.6401405 -0.12798946 4280690473
8.3919907 4.6959848 -0.1007612 4286875014
8.6027546 4.6901779 -0.14311638 4286545533
4.061543 4.7382965 -0.14965709 4282664001
4.1763887 4.7386789 -0.1474379 4279374096
4.2195845 4.7197833 -0.12176604 4279111183
8.5727549 4.7267361 -0.11846847 4286479484
7.8489461 4.7567058 -0.12418473 4281742644
8.1476316 4.8196802 -0.14075221 4287203721
7.283103 4.9691639 -0.10568484 4281416510
7.4813285 4.9757066 -0.11033951 4279653520
3.9963019 5.0295177 -0.10997003 4283781709
5.6128631 5.1578007 -0.14628424 4286808706
4.7567306 5.2888365 -0.10472048 4292336090
4.8204226 5.2813172 -0.1433401 4290428092
4.7120962 5.3046799 -0.12996422 4292138712
6.8418179 3.1412253 -0.077056192 4283848531
6.8670006 3.1001427 -0.09989962 4284965985
5.5962825 3.1603692 -0.064553991 4280690732
6.8167849 3.1823759 -0.054252122 4282793526
5.5114202 3.2231216 -0.09898483 4284506205
5.569447 3.220439 -0.055350374 4281217071
5.3932543 3.3373108 -0.084919311 4279374612
7.918993 4.3959737 -0.052827172 4279438896
-5.50843 4.4438176 -0.071508825 4279703576
7.8932381 4.4143934 -0.096162148 4279374354
-5.2689829 4.5218444 -0.070281893 4279244317
8.5327034 4.5178399 -0.052725811 4282467399
-5.1657338 4.6053324 -0.087104559 4288189842
4.2409077 4.6303515 -0.078211427 4287726187
4.144104 4.6994023 -0.093150854 4289638577
4.3057761 4.6817794 -0.07030037 4279440402
7.9246726 4.6866393 -0.063206501 4280821542
4.2073483 4.7495527 -0.079290837 4279308046
4.2504439 4.7305503 -0.053558018 4279176720
7.8699956 4.7363958 -0.079185456 4282204740
8.1567125 4.7934895 -0.094794534 4287204492
8.5428915 4.7633929 -0.093881719 4286348927
7.9364047 4.8357983 -0.064347528 4287335308
7.3007741 4.9433131 -0.062095966 4280757039
4.086616 4.9976139 -0.061518449 4281812304
4.0414591 5.013566 -0.085744217 4280689701
4.1660366 5.1454849 -0.073120594 4286743428
5.2415643 5.1108418 -0.061960395 4288518545
5.0058289 5.183198 -0.073201366 4290953409
5.3509769 5.1833687 -0.08137887 4278979595
5.6245718 5.1685047 -0.072332174 4286743427
4.8594222 5.2276063 -0.096507214 4292993764
4.9261341 5.2210312 -0.065480486 4292137939
-0.42010114 -0.0032453339 -0.0088615641 4283320909
-0.75214309 0.021936368 -0.011058917 4281874745
-0.7397812 0.023098093 -0.018984884 4282795846
-0.65043753 0.0057246485 -0.0043629277 4287401357
-0.63426954 0.0066176276 -0.013615428 4282993225
-0.55224532 0.0016628746 -0.011595344 4281743156
-0.5442971 0.0022660147 -0.012819975 4284110684
-0.33051854 0.013502304 -0.0072991112 4283321422
-0.21870683 0.010378692 -0.0091831991 4283123785
-0.18876684 0.0093427971 -0.017148323 4283058506
-0.14752865 0.021374915 -0.0062936102 4281677109
5.7778583 2.9236948 -0.014105747 4284972702
5.4156384 3.1276245 -0.02866034 4282466883
5.6180205 3.1376321 -0.021068089 4284436300
5.5842671 3.1853459 -0.0011829917 4279507485
5.5638919 3.2083163 -0.045170434 4279178012
6.7917519 3.223527 -0.031447843 4280952620
6.7667189 3.2646778 -0.0086436672 4291808973
7.9766607 4.3485379 -0.040792134 4286876560
-5.5397449 4.4249191 -0.032230973 4279834648
7.7943549 4.5994511 -0.040153962 4280748041
8.4077921 4.6430869 -0.0086118001 4286940806
8.6155243 4.6381717 -0.049990281 4286611841
-5.0647326 4.6545177 -0.039083321 4289023026
4.2266655 4.6605082 -0.036644608 4278781705
4.3366361 4.6925459 -0.0020923489 4280032802
7.9455943 4.6662302 -0.018148633 4280032025
4.1711426 4.7101116 -0.023330804 4278585866
4.29354 4.7115483 -0.027825169 4279374096
7.8909183 4.7159853 -0.034127504 4280754979
7.3450541 4.8832903 -0.049559925 4281347634
4.1318684 4.9817691 -0.037350137 4287665818
4.1769304 4.9657102 -0.013066866 4287129926
5.3778667 5.02701 -0.0057940893 4290296504
5.4797125 5.0943336 -0.016074635 4279507737
5.4235454 5.1448464 -0.012299271 4279439630
5.657619 5.1475768 -0.0355842 4286808963
5.0482097 5.1658835 -0.04513089 4291085508
5.3872614 5.1641073 -0.04683907 4278979338
4.9909115 5.2134504 -0.031912599 4290953922
-0.4502548 -0.0020553002 0.044206791 4287269771
-0.42099589 -0.002238156 0.013925974 4282795589
-0.39279905 -0.00110943 0.037398383 4281676853
-0.85906577 0.02638826 0.036029369 4282400831
-0.8463462 0.027421454 0.049370896 4282597952
-0.75831014 0.022934787 0.026383735 4282992970
-0.72478384 0.026677793 0.020237854 4282927690
-0.65569627 0.0070758536 0.030669367 4282006331
-0.6261546 0.0089874258 0.026122516 4283585105
-0.5901165 0.011298267 0.021358732 4282532934
-0.53093624 0.0046069757 0.016453138 4283387984
-0.42814204 0.00094685692 0.041536063 4284308569
-0.39216512 0.002181768 0.037468195 4282861384
-0.32676107 0.015094449 0.021094261 4282598210
-0.28801203 0.018328389 0.037457071 4284901225
-0.22698711 0.012694751 0.031410959 4283387214
-0.19355719 0.013184076 0.028892284 4281216560
-0.13663091 0.022926761 0.028225385 4282597186
5.730546 2.9965582 0.047641836 4284573822
5.6183648 3.0954454 0.046583023 4284177244
5.6397586 3.1148953 0.022417717 4284703844
5.5744262 3.1554656 0.032870889 4287726962
-5.8649378 4.1698604 0.030857241 4279900442
8.1754189 4.1878104 0.038647741 4283124555
8.1177511 4.2352462 0.026612792 4282796361
-5.7384663 4.2767363 0.03465274 4279835675
8.0152283 4.3208623 0.024238842 4283518796
-5.6284781 4.3569479 0.010994926 4279966234
7.9829021 4.4289317 0.043643996 4278913804
8.51404 4.5268426 0.019933244 4283320646
7.8407383 4.5587616 0.047681425 4278782217
4.3092265 4.6216135 0.019861637 4284042552
4.2537036 4.6712174 0.033175442 4279111447
4.3797321 4.6735439 0.0236405 4280624424
4.3243999 4.7223148 0.040382899 4278649858
4.2221837 4.9498649 0.011102201 4282136372
6.026207 5.014009 0.045346968 4286612355
5.3205252 5.0757585 0.0017007217 4290098870
5.3598766 5.0580459 0.033635352 4290230198
6.7888799 5.0792685 0.02396236 4280427296
6.8407373 5.072629 0.036096156 4280558886
5.6906667 5.1266489 0.0011639347 4286874499
5.7237139 5.1057215 0.037911907 4286874754
6.6791253 5.1236682 0.042532802 4281675806
5.0761557 5.1795168 0.02380115 4291217352
4.9799809 5.2097325 0.021429831 4294243057
-0.86585039 0.027154246 0.067150712 4283387725
-0.83114135 0.030225996 0.080883726 4281216557
-0.71546328 0.027993139 0.099557474 4279769112
-0.67369992 0.033228666 0.091892868 4281019953
-0.64590353 0.038815025 0.086786889 4283124810
-0.57077253 0.016451335 0.098347597 4282137404
-0.54188406 0.02190252 0.093974449 4286611583
-0.1066039 0.019203039 0.099766999 4282926403
5.7067571 3.032912 0.078569986 4285097835
5.6613641 3.0920796 0.065958098 4284967016
5.4469266 3.1184454 0.086660653 4282400834
5.6246347 3.1391745 0.086944699 4283058250
5.4272885 3.3412321 0.064773127 4279110924
-5.9378867 4.1080909 0.094880655 4280163611
8.2330866 4.1403742 0.05068269 4283124812
-5.8821769 4.1587868 0.087823957 4279966491
8.143507 4.2168269 0.06994772 4282993484
7.9509749 4.4586453 0.074268267 4278913547
8.5842953 4.4565215 0.086876035 4281546289
7.8798304 4.5235119 0.07631509 4278782217
8.5311928 4.506371 0.066486977 4281677106
8.4238586 4.590385 0.083420433 4287006343
9.730916 4.579905 0.053215347 4285690481
4.2949843 4.6517701 0.061428551 4284310375
4.4105916 4.6843109 0.091848537 4284770413
7.930366 4.8204556 0.054355256 4287532429
4.3124995 4.9179606 0.059554644 4281545781
4.2551088 4.9638276 0.077718496 4282598209
5.496181 4.9742131 0.089803249 4290361788
5.6447325 4.9860373 0.083769403 4279832589
6.0563836 4.9925289 0.084186837 4286677123
5.3994017 5.0405607 0.065432258 4290099129
5.5884738 5.0364375 0.087612003 4280293392
5.5522809 5.0558114 0.053004887 4283453254
5.7567616 5.0847936 0.074659958 4287006599
6.9444523 5.05935 0.060363747 4280690993
6.9963102 5.0527105 0.072497651 4284784291
5.1614799 5.1456952 0.079448126 4291743697
5.4961133 5.1063242 0.056780253 4283980638
6.7309828 5.1170287 0.054666597 4280427818
5.1187778 5.16255 0.051658008 4291546060
4.9664822 5.239162 0.063772492 4294243057
-0.55753827 -0.00014182318 0.11959049 4287921760
-0.48536769 -0.00038381273 0.12860639 4287401099
-0.43328342 -0.0022732029 0.1224705 4287203454
-0.34535775 -0.00013957646 0.11205032 4281019181
-0.80054826 0.023299381 0.11512557 4287467150
-0.76107222 0.036285546 0.13529284 4285624425
-0.73801064 0.034090053 0.10363907 4284045907
-0.6673339 0.0090231067 0.11319583 4282795332
-0.62926656 0.014633773 0.10811063 4283650895
-0.58023405 0.016371526 0.10317998 4285559927
-0.53154522 0.011281856 0.11564045 4281413680
-0.48011658 0.011474594 0.10797798 4283059020
-0.43459186 0.0047883973 0.12250446 4284506202
-0.35948062 0.0069504189 0.11380122 4281611573
-0.34420857 0.005328997 0.11217817 4281545522
-0.2679413 0.021337427 0.1154334 4281216815
-0.24024701 0.02556402 0.1123872 4286084465
-0.16339844 0.017750667 0.10657131 4281348401
-0.13285026 0.02163714 0.10400082 4285557351
-0.091347694 0.028350931 0.1070473 4282400832
5.9635763 2.9002817 0.10927293 4284045657
5.7287574 3.0103281 0.12194949 4289373320
5.6307654 3.1133108 0.12583426 4284769638
-5.7015691 4.0042524 0.14596951 4279641162
-5.9109936 4.1393418 0.1287141 4279966746
8.3455734 4.1405845 0.14336206 4288519063
-5.8554001 4.1901293 0.12159901 4279966748
7.9741669 4.4383006 0.11818601 4278979596
8.6194229 4.421361 0.12034744 4280492576
7.9422398 4.4680138 0.14881015 4278914060
8.9320898 4.5901685 0.11259969 4286150774
4.3775454 4.6128759 0.11793476 4280098334
4.3983555 4.7140799 0.13432375 4284245103
7.9412422 4.7945719 0.10009634 4287532430
7.9521184 4.7686877 0.14583741 4287532685
4.3455229 4.932034 0.12611265 4282664003
6.0865598 4.9710493 0.12302653 4286677377
7.3136039 4.9818645 0.10239317 4290690493
5.3466454 5.0472317 0.14979629 4293058784
7.2037401 5.0261526 0.12103283 4291151043
7.2555981 5.0195131 0.13316663 4290888129
7.307456 5.0128736 0.14530052 4290756287
5.7684698 5.0954976 0.14861219 4287038990
7.093986 5.0705523 0.13960327 4278649858
5.2465596 5.1115351 0.13529652 4292599004
5.1892648 5.159101 0.14851776 4292138454
6.1307044 5.1932659 0.10820398 4279373324
6.107008 5.2355623 0.13033009 4279834389
-0.96409762 -0.018721508 0.18904002 4283190349
-0.91281247 0.026013304 0.1766489 4284374622
-0.86384678 0.030312333 0.16774167 4286479728
-0.83197665 0.031951383 0.16199523 4280821801
-0.78013325 0.03545801 0.15261 4282203453
5.7253098 2.9677694 0.19215101 4285229938
5.7049723 3.0466847 0.15287542 4289440916
5.6376944 3.0879688 0.16461951 4285230189
8.3680201 4.0376801 0.19272238 4279573295
8.3103523 4.0851159 0.18068753 4286020216
-5.8761883 4.1815939 0.17143829 4279966492
-5.8495188 4.1972427 0.16882989 4280032026
8.2207718 4.1615686 0.19995256 4283321934
-5.8129373 4.2436953 0.17328432 4279900698
7.9973583 4.4179559 0.16210376 4279176461
4.4045839 4.6235852 0.18775469 4280229664
8.4033308 4.60075 0.15547553 4287203721
4.4415522 4.6951804 0.16000234 4286937967
8.1742764 4.6994319 0.16152126 4287335563
7.9629946 4.7428041 0.19157849 4287664016
4.4809942 4.8841782 0.19879006 4282990395
5.5750575 4.9390154 0.15353483 4290888386
5.7535849 4.9282541 0.18738872 4287799460
6.1168327 4.949676 0.16180383 4286743170
5.5177164 4.9877639 0.16102961 4290625215
5.5571547 4.9701653 0.1928954 4290822337
5.6792755 4.9883976 0.17389415 4283783780
6.0939131 4.9819546 0.19750862 4286612611
7.411171 4.9995947 0.16956812 4290164406
7.463028 4.9929552 0.18170181 4290033078
7.5148859 4.9863157 0.19383571 4289769391
5.8015175 5.0745697 0.18536016 4278978569
7.145844 5.0639129 0.15173717 4280300355
7.1975908 5.057157 0.16394126 4290691009
6.1287022 5.1675291 0.15525848 4279704347
6.1050057 5.2098255 0.17738459 4280163870
-0.97193903 -0.018727966 0.22647773 4286085497
-0.93134415 -0.014920066 0.22710823 4281743160
5.7483144 3.0011337 0.23989871 4281741097
5.6427646 3.1309457 0.20512138 4285098089
5.6628795 3.1078203 0.24920818 4285164395
5.8303013 3.1123312 0.2148903 4279900440
-5.8862529 4.0116849 0.23783001 4279967008
-5.8328829 4.0644264 0.22842662 4280229921
8.3361073 4.0666966 0.22402251 4282203448
-5.5881219 4.1247463 0.24497706 4286409053
-5.8508692 4.2077856 0.24379607 4279965721
-5.8226361 4.2281923 0.20294668 4279966490
8.0205498 4.3976111 0.2060214 4279308815
8.6179228 4.5450587 0.20725924 4286742914
8.9407568 4.5380077 0.20601438 4286283135
4.4871449 4.584691 0.24426094 4285359968
8.4112978 4.5743499 0.20152093 4287137927
8.9096155 4.5744729 0.22926494 4286348412
4.4458642 4.6041384 0.2160078 4283061598
4.472311 4.7058444 0.22826464 4282857523
5.7898688 4.9089928 0.22192845 4289243302
6.1240892 4.9604745 0.23634848 4286808965
